1133
4.18509  3.22397  19.8335  95  97  103  
-3.49329  2.32578  14.6465  106  131  152  
-3.45345  2.32886  14.6557  86  104  126  
-2.62812  2.23075  13.9805  162  170  191  
-2.44369  2.21287  13.8654  128  135  156  
-2.06743  2.32304  14.5315  188  197  209  
-1.19265  2.2801  14.1745  66  80  101  
-1.00795  2.32706  14.4218  137  152  175  
0.342592  2.5402  15.7326  53  75  97  
0.394916  2.49418  15.4271  50  69  96  
0.677609  2.60732  16.123  49  61  79  
2.86409  2.98251  18.2943  82  85  91  
4.21579  3.18219  19.3697  56  52  52  
5.67085  3.67398  22.4318  66  58  55  
-3.76478  2.3501  14.8549  111  128  147  
-3.73722  2.36599  14.821  189  213  232  
-3.18249  2.27382  14.2143  13  32  54  
-3.03666  2.23083  13.92  22  22  37  
-3.16826  2.39013  14.9135  113  131  149  
-3.10305  2.39751  15.0675  134  141  158  
-2.88022  2.29379  14.2633  131  138  150  
-2.60981  2.27888  14.148  160  168  183  
-2.33224  2.23816  13.9119  118  131  150  
-1.90715  2.30013  14.2671  171  172  176  
-1.84549  2.27536  14.1399  125  133  142  
-1.82881  2.32377  14.4334  195  204  221  
-1.76176  2.34624  14.5963  193  203  220  
-1.52275  2.31001  14.3151  168  181  201  
-1.10607  2.23437  13.8255  134  142  165  
-0.824521  2.34801  14.503  146  157  173  
-0.67402  2.41658  14.9353  83  78  86  
0.0905963  2.50946  15.4162  79  66  69  
0.812217  2.66964  16.3863  87  98  118  
2.16703  2.93228  17.9248  41  42  53  
5.33461  3.63079  22.0239  151  160  157  
-3.56376  2.33639  14.5187  34  52  69  
-3.03679  2.32485  14.4441  162  173  192  
-2.72815  2.25916  14.0139  153  166  183  
-2.21966  2.23357  13.8146  179  191  202  
-2.04116  2.21634  13.7052  120  132  150  
-2.00529  2.31335  14.2877  176  179  191  
-1.47062  2.32971  14.3391  133  151  172  
-1.11096  2.42904  14.9451  92  99  126  
-0.898649  2.40877  14.8106  79  82  101  
0.383377  2.59487  15.8305  32  46  66  
0.939301  2.71695  16.6013  92  97  114  
3.12832  3.03622  18.347  56  56  62  
-3.47211  2.32485  14.3851  169  193  212  
-3.22308  2.25013  13.9198  149  168  180  
-3.18278  2.31153  14.2768  168  197  220  
-3.14391  2.31465  14.2863  130  149  171  
-2.99642  2.27525  13.941  88  98  121  
-2.5765  2.29154  14.0155  152  163  180  
-2.43156  2.26697  13.9483  132  141  154  
-2.37609  2.23859  13.8021  174  184  202  
-2.35381  2.27219  13.9613  115  130  148  
-2.13342  2.25684  13.8547  163  172  185  
-2.02102  2.28213  14.0193  117  123  139  
-1.82615  2.2473  13.762  179  188  194  
-1.63665  2.32073  14.2009  158  169  188  
-1.55164  2.29831  14.0834  192  209  226  
-1.02871  2.35741  14.3985  52  61  81  
-0.506549  2.49862  15.31  77  68  71  
-0.354404  2.41133  14.6489  85  79  86  
0.406722  2.56688  15.5559  57  64  85  
2.4765  3.04838  18.4184  80  82  89  
5.35649  3.63168  21.7519  76  76  78  
5.66731  3.76303  22.5868  103  108  111  
-3.91225  2.45133  15.1957  158  147  143  
-3.73567  2.42691  14.9283  48  47  64  
-3.56609  2.37542  14.5852  86  104  124  
-2.16314  2.27245  13.8757  164  178  191  
-1.91888  2.30561  14.0556  125  128  141  
-1.70022  2.28972  13.9465  137  151  167  
-1.53064  2.34188  14.2213  149  166  189  
-0.898151  2.39912  14.5777  70  77  98  
-0.127235  2.52182  15.2707  88  82  89  
2.19051  2.99398  17.9807  80  76  87  
3.63014  3.16585  18.8759  132  139  148  
5.66832  3.6946  22.0049  174  141  111  
-3.63798  2.4129  14.7792  47  66  87  
-3.36977  2.37219  14.4776  86  106  123  
-3.22187  2.34628  14.3294  0  6  23  
-2.75688  2.3116  14.0926  174  183  198  
-2.53382  2.27635  13.8314  121  125  144  
-2.45354  2.30119  13.9979  180  188  202  
-2.29582  2.28061  13.8762  179  184  203  
-2.08078  2.31369  14.0613  120  132  144  
-2.05451  2.31542  14.0655  171  184  196  
-1.68676  2.37858  14.3572  165  175  191  
-0.955438  2.41522  14.604  120  133  157  
-0.731901  2.4206  14.5836  70  79  100  
-0.411744  2.46947  14.8866  56  53  57  
0.240315  2.63681  15.8862  79  73  76  
0.362966  2.79448  16.9241  32  33  37  
2.71111  3.18361  19.0412  72  85  95  
3.58145  3.22634  19.2089  93  92  98  
5.35309  3.68491  21.8234  128  139  135  
-3.68792  2.40565  14.6262  135  167  195  
-3.31033  2.39571  14.5202  70  73  90  
-2.96729  2.34897  14.2439  53  52  69  
-2.52268  2.31399  14.0103  175  180  194  
-2.29048  2.40153  14.5134  94  96  112  
-2.10565  2.31112  13.9339  167  177  188  
-1.96552  2.33851  14.1018  130  135  152  
-1.49296  2.49056  15.06  74  95  116  
-0.831027  2.43652  14.6185  29  48  68  
-0.652155  2.46175  14.7692  40  49  67  
0.397361  2.70265  16.1583  61  63  72  
5.34223  3.76342  22.1885  123  136  135  
5.66985  3.80623  22.444  59  46  44  
-3.56261  2.43209  14.7874  135  160  177  
-3.45014  2.40492  14.5247  65  93  124  
-3.47935  2.46605  14.887  148  170  183  
-3.37088  2.41104  14.5422  169  185  196  
-3.22232  2.38463  14.3928  162  197  213  
-2.87019  2.31974  13.9707  134  143  162  
-2.64543  2.30376  13.8624  115  115  135  
-2.58176  2.30864  13.8763  178  181  196  
-1.95656  2.23097  13.4198  167  178  188  
-1.82446  2.38345  14.2934  222  231  245  
-1.67587  2.41054  14.4587  181  193  211  
-1.63402  2.43154  14.6135  137  153  173  
-1.54863  2.36862  14.1795  86  105  127  
-1.48123  2.37163  14.1817  53  71  100  
-1.11851  2.42551  14.4962  47  64  94  
-0.694926  2.52618  15.0816  76  92  119  
0.638496  2.71236  16.0654  40  52  72  
1.59763  2.97082  17.5103  54  61  72  
2.80245  3.14854  18.5724  77  79  92  
4.19861  3.35453  19.6317  42  27  32  
-3.69122  2.44555  14.6952  33  44  74  
-3.54526  2.45496  14.8338  132  155  175  
-3.16334  2.40852  14.4378  47  66  90  
-3.06683  2.35767  14.1209  126  153  176  
-3.04407  2.38028  14.2846  164  173  195  
-2.95177  2.33107  13.9774  106  109  126  
-2.4673  2.3544  14.0768  129  132  148  
-2.25984  2.34402  13.9314  168  176  191  
-1.92212  2.39599  14.3091  138  153  170  
-1.85723  2.35061  14.0265  212  223  239  
-0.810242  2.49404  14.8297  44  58  86  
-0.451548  2.59391  15.4275  50  61  79  
-0.0403886  2.59538  15.3395  55  49  55  
0.461926  2.67043  15.6734  76  74  87  
0.519583  2.73729  16.1507  45  52  68  
5.33398  3.79577  22.122  85  82  89  
-3.46507  2.44316  14.5878  72  95  116  
-3.30085  2.41651  14.4352  26  34  55  
-3.26192  2.41999  14.4464  0  3  18  
-3.15809  2.57724  15.3701  109  113  132  
-2.90722  2.43111  14.5064  131  141  159  
-2.77844  2.38389  14.2033  103  109  128  
-2.27959  2.33388  13.8361  112  121  139  
-2.18257  2.3597  14.0011  165  175  187  
-1.76786  2.3736  14.0618  154  167  184  
-1.45904  2.40782  14.2293  50  71  101  
-0.784216  2.56182  15.142  77  96  123  
-0.584202  2.51703  14.829  38  54  82  
-0.407891  2.58978  15.2621  75  94  119  
-0.257062  2.54289  14.9471  49  48  58  
-0.11487  2.54212  14.9093  63  59  68  
0.0986154  2.68844  15.8187  47  49  62  
1.21776  2.8442  16.493  75  75  85  
2.32736  3.02435  17.6038  76  80  87  
3.3035  3.23286  18.8037  127  136  137  
3.37134  3.15421  18.303  82  77  82  
5.67485  3.80064  22.0023  133  135  130  
-3.74755  2.48134  14.7511  96  119  157  
-3.35819  2.36035  13.9377  157  182  197  
-3.08232  2.41503  14.3355  66  73  94  
-2.53237  2.39466  14.0941  173  186  197  
-2.45061  2.33962  13.8314  203  208  214  
-2.15734  2.451  14.4851  161  172  182  
-2.04218  2.43482  14.3268  190  202  211  
-1.32233  2.45149  14.4119  81  103  129  
-0.906785  2.50674  14.719  43  55  86  
-0.794005  2.50909  14.7068  82  100  127  
-0.365166  2.58188  15.0775  74  95  124  
0.162994  2.62858  15.3141  81  93  114  
0.229499  2.656  15.5038  76  87  104  
0.362734  2.73113  15.9644  45  39  51  
0.521089  2.77646  16.1986  56  48  59  
3.1363  3.36284  19.5277  86  87  95  
3.89035  3.47596  20.0992  101  99  99  
4.00396  3.47606  20.1287  133  147  165  
-3.72134  2.54989  15.1323  116  143  159  
-3.1114  2.41067  14.2015  133  163  187  
-2.70388  2.37151  13.9593  167  178  197  
-2.45491  2.41001  14.1608  94  97  112  
-2.25598  2.39075  14.0419  109  117  131  
-1.88954  2.50463  14.6927  147  152  168  
-1.68755  2.48304  14.56  160  174  195  
-1.61218  2.45527  14.4197  107  117  140  
-1.06994  2.4988  14.588  82  102  131  
-0.553977  2.60147  15.1509  75  90  116  
0.118106  2.60201  15.0803  76  88  115  
2.24039  3.27928  19.1694  60  60  70  
2.4749  3.10379  17.8926  81  88  94  
3.57925  3.36831  19.3958  49  35  31  
3.41824  3.22394  18.4509  148  163  177  
5.65548  4.01447  23.0591  107  116  120  
5.66048  3.89227  22.3047  123  113  113  
7.36227  4.08895  23.4493  160  136  106  
-3.84652  2.49126  14.7843  130  154  158  
-3.76347  2.49487  14.6336  27  23  41  
-3.38655  2.46725  14.5065  60  74  92  
-3.33391  2.53722  14.8913  128  169  192  
-2.9858  2.38182  13.9327  149  165  185  
-2.79482  2.43886  14.2873  163  173  192  
-2.48515  2.37272  13.8768  127  128  148  
-2.44689  2.37577  13.8856  216  225  238  
-2.17582  2.36341  13.7899  188  199  213  
-2.06175  2.42005  14.0889  133  145  156  
-1.1823  2.48371  14.483  76  98  126  
-0.909696  2.54307  14.7666  84  101  129  
-0.697527  2.54639  14.7374  79  97  124  
-0.430574  2.59696  15.0513  70  93  123  
3.86299  3.4575  19.7573  124  139  152  
5.67274  3.83965  21.8506  83  54  47  
-3.7597  2.54189  14.8551  70  79  106  
-3.58775  2.51256  14.6903  100  128  145  
-3.15004  2.44564  14.2536  36  45  68  
-2.86539  2.43121  14.1454  88  96  112  
-2.4656  2.48393  14.5044  164  178  197  
-1.8468  2.44032  14.1527  196  205  221  
-1.7573  2.57002  14.915  120  138  159  
-1.46695  2.49958  14.4825  90  108  138  
-1.08033  2.48695  14.36  48  59  86  
-0.645038  2.58924  14.9312  41  57  84  
-0.483999  2.66473  15.3741  42  55  83  
-0.14072  2.6412  15.199  82  99  125  
0.0681144  2.71542  15.6268  81  95  117  
1.32442  3.00965  17.2493  89  91  102  
1.53736  2.98987  17.0829  90  91  101  
2.26263  3.11546  17.805  83  82  89  
3.34613  3.31462  18.8483  124  130  134  
3.38665  3.30479  18.7797  55  47  52  
3.83239  3.41707  19.4051  141  165  183  
5.33906  3.8817  21.9924  63  72  72  
-6.06193  3.79392  22.2632  172  162  148  
-3.46779  2.51739  14.6873  111  137  155  
-3.40831  2.54712  14.7651  170  188  200  
-3.02886  2.49675  14.4738  150  166  184  
-2.68446  2.42938  14.2017  141  144  162  
-2.64209  2.43143  14.057  127  131  147  
-2.53483  2.45984  14.2299  186  198  209  
-2.45548  2.46528  14.243  121  120  132  
-2.11068  2.42205  13.994  111  125  138  
-1.74844  2.43256  14.0456  208  221  234  
-1.66231  2.48817  14.344  104  117  139  
-1.60791  2.4909  14.3474  67  73  92  
-1.42801  2.51955  14.5085  53  64  84  
-1.29946  2.54549  14.6666  46  59  74  
-1.24351  2.54778  14.6672  47  62  80  
-1.03299  2.55403  14.6555  47  55  84  
-0.249632  2.68265  15.3391  73  87  115  
0.4101  2.80771  16.0418  72  68  78  
3.69908  3.40764  19.2665  42  49  56  
5.34851  3.85678  21.7121  57  49  49  
-3.68177  2.54396  14.7287  18  39  61  
-3.66634  2.61685  15.1306  144  167  179  
-3.12714  2.50787  14.48  128  154  171  
-3.0447  2.49174  14.335  77  85  102  
-2.34568  2.41963  13.9569  142  157  169  
-2.31193  2.45952  14.1383  175  182  196  
-2.03596  2.44521  14.0325  171  182  193  
-1.93043  2.45154  14.0447  174  184  195  
-1.89539  2.43901  14.0386  137  144  155  
-1.69236  2.50472  14.3665  162  174  197  
-0.718857  2.62501  14.9885  46  55  82  
1.03011  3.04995  17.4045  67  68  82  
2.57408  3.23713  18.2496  46  43  50  
4.29065  3.57664  20.0822  120  131  143  
-5.53746  3.45753  20.0561  143  142  136  
-5.37146  3.41023  19.7089  138  144  148  
-3.31674  2.52916  14.4891  41  43  51  
-3.28381  2.55617  14.6683  32  39  49  
-3.14336  2.50391  14.3478  27  30  44  
-2.69714  2.40819  13.7892  139  154  172  
-2.38919  2.39952  13.708  204  206  210  
-2.20428  2.43243  13.8866  181  193  207  
-1.79344  2.44709  13.9494  164  183  203  
-1.74962  2.5197  14.386  168  184  204  
-1.21983  1.11131  13.7581  47  56  74  
-1.08579  2.64  14.9958  74  93  119  
0.910598  2.94755  16.6462  96  96  110  
1.05405  2.89933  16.2905  96  100  111  
2.23091  3.18936  17.8956  51  42  49  
3.7543  3.51376  19.6621  160  178  188  
4.20938  3.49099  19.4246  44  35  39  
5.33045  3.98878  22.2534  138  147  148  
5.34045  3.90048  21.7259  53  47  47  
-3.83323  2.59191  14.7953  152  168  175  
-3.67223  2.58635  14.8043  132  170  198  
-3.526  2.59952  14.8449  29  42  60  
-2.94042  2.50094  14.2472  148  156  167  
-2.91431  2.50298  14.2528  147  151  166  
-2.34678  2.49378  14.1857  125  137  151  
-2.30725  2.49662  14.1929  179  183  197  
-2.10479  2.42446  13.7812  126  136  148  
-1.63263  2.42567  13.7189  96  109  131  
-1.63471  2.61832  14.8754  95  109  131  
-1.23903  2.55253  14.4541  34  48  67  
-1.08606  2.5833  14.5565  74  88  116  
-0.759568  2.58867  14.5895  79  95  124  
-0.258372  2.71585  15.3178  48  63  89  
0.444901  2.84969  15.8847  65  61  71  
2.46428  3.2365  18.0647  82  89  95  
3.58517  3.43625  19.1314  48  50  52  
3.88637  3.49457  19.4071  103  107  114  
4.31077  3.61777  20.091  101  112  128  
-6.06339  3.79481  21.6888  80  70  60  
-3.20878  2.53752  14.3953  149  170  188  
-2.55909  2.494  14.1579  142  147  161  
-2.23809  2.46593  13.9321  96  102  118  
-2.13002  2.54725  14.3958  130  138  150  
-1.94498  2.5991  14.7184  97  105  124  
-1.4524  2.52  14.1679  42  51  69  
-1.19844  2.3733  13.2585  62  72  91  
-0.972812  2.72854  15.3856  81  101  129  
-0.861328  2.65446  14.9038  53  70  98  
2.43792  3.26278  18.1219  50  45  52  
2.86445  3.32021  18.4083  49  49  56  
3.18419  3.46995  19.2598  84  87  94  
3.88124  3.55135  19.6828  58  56  64  
-3.17946  2.58209  14.5932  122  148  168  
-3.06885  2.52811  14.274  61  77  92  
-3.08677  2.59017  14.6173  180  191  206  
-2.95218  2.53827  14.3044  88  92  106  
-2.79759  2.51224  14.164  155  158  178  
-2.49185  2.49986  14.0652  191  195  213  
-2.43974  2.50368  14.0749  114  119  141  
-2.32565  2.45778  13.7978  67  69  86  
-1.98399  2.5206  14.1402  124  140  155  
-1.86621  2.54801  14.3022  99  111  129  
-1.86343  2.60188  14.6002  140  158  180  
-1.79966  2.57192  14.4569  165  181  204  
-0.582001  2.65131  14.7822  35  47  74  
-0.0854646  2.94517  16.4513  76  89  116  
0.128444  2.82977  15.75  48  56  74  
1.6148  3.156  17.4966  56  58  67  
2.22461  3.25606  17.9825  54  47  52  
2.69007  3.30781  18.2725  86  90  103  
2.9806  3.31939  18.2745  48  47  56  
3.17617  3.42312  18.8813  76  79  83  
3.32807  3.45834  19.0519  107  115  129  
3.48337  3.50918  19.3635  44  39  47  
3.55251  3.49183  19.2468  141  153  166  
3.75866  3.50871  19.2991  40  43  58  
4.21952  3.62294  19.9141  76  72  82  
5.65065  4.17949  22.9793  73  85  83  
-3.90143  2.67662  15.0736  43  53  69  
-3.69968  2.594  14.5487  48  57  75  
-3.45845  2.62152  14.7547  60  75  89  
-3.26137  2.5723  14.4453  56  73  93  
-2.66707  2.48405  13.908  151  157  170  
-2.42579  2.5435  14.2515  165  179  201  
-2.19403  2.50514  13.991  137  147  169  
-2.18596  2.52531  14.1353  87  94  112  
-2.05406  2.53461  14.1578  189  200  212  
-1.8957  2.4922  13.8903  116  120  137  
-1.71523  2.78976  15.6056  107  125  147  
-1.56806  2.62366  14.6527  149  158  175  
-1.03629  2.68807  14.9697  76  97  121  
-0.142233  2.77239  15.3615  43  61  85  
0.18825  2.84764  15.752  82  86  104  
0.81981  2.99631  16.5358  87  93  108  
2.53199  3.29156  18.0652  45  50  60  
4.04701  3.62912  19.8762  40  36  44  
5.9902  4.15457  22.6883  120  81  55  
8.07733  4.32449  23.5894  102  99  96  
-6.27719  3.95449  22.1962  120  115  109  
-3.61164  2.67541  14.9647  16  40  62  
-3.3925  2.62322  14.6371  28  42  58  
-3.14315  2.53839  14.1622  34  47  69  
-3.12934  2.57629  14.3287  112  135  159  
-2.59994  2.47058  13.7823  141  150  162  
-2.55009  2.47549  13.7984  174  183  196  
-1.84563  2.58589  14.3549  74  82  105  
-1.70242  2.54113  14.0785  67  78  102  
2.15282  3.28994  18.0875  60  57  66  
2.81728  3.39733  18.5547  75  77  85  
3.74072  3.56193  19.3945  122  150  167  
5.3312  4.06443  22.0653  141  135  134  
-6.09373  3.92589  21.9458  149  171  176  
-3.66023  2.69218  14.9878  36  44  66  
-3.42458  2.57376  14.3038  109  134  153  
-3.42666  2.64087  14.6636  189  205  219  
-2.83995  2.56555  14.2408  94  98  118  
-2.43489  2.5804  14.3052  87  91  114  
-2.33227  2.53152  14.018  75  77  88  
-1.96765  2.57618  14.2176  164  174  185  
-1.41936  2.66752  14.7067  40  50  68  
-1.29504  2.61976  14.4181  81  94  117  
0.55783  3.08758  16.9695  55  52  61  
4.17131  3.71678  20.1314  41  31  38  
-5.92568  3.75005  20.818  95  88  85  
-6.09028  3.89754  21.7359  74  75  79  
-6.00793  3.94868  21.9363  107  108  114  
-3.80028  2.60038  14.4164  80  81  86  
-3.74862  2.70477  14.9968  24  33  49  
-3.30816  2.62782  14.5296  178  208  231  
-3.05488  2.60732  14.4018  67  78  92  
-3.01555  2.61067  14.4115  173  179  191  
-2.79348  2.58874  14.282  147  150  167  
-2.80235  2.64997  14.6126  112  113  125  
-2.69905  2.5738  14.2519  119  120  131  
-2.61473  2.56436  14.148  108  117  129  
-2.31055  2.55161  14.0492  169  184  194  
-2.07841  2.58818  14.2323  122  135  149  
-1.87936  2.62107  14.4034  162  173  190  
-1.74885  2.59498  14.2694  74  85  110  
-1.70819  2.57677  14.1265  65  78  100  
-1.52158  2.65922  14.5701  47  63  85  
-0.142897  2.82944  15.4319  46  56  82  
2.4406  3.30863  17.8858  82  87  95  
3.09112  3.53574  19.1247  78  79  89  
3.64254  3.64026  19.6482  49  47  55  
-3.3673  2.64228  14.5447  90  108  128  
-3.11324  2.62163  14.4167  172  194  211  
-2.86414  2.60182  14.2936  86  88  105  
-2.52823  2.45785  13.4539  155  164  174  
-2.19092  2.52416  13.8042  94  105  130  
-1.54923  2.60109  14.1508  84  103  127  
-1.42418  2.70484  14.7569  87  98  120  
-1.19273  2.76328  15.0246  71  81  109  
0.212594  2.95657  16.0532  50  52  63  
1.62588  3.26288  17.6195  53  54  64  
2.53065  3.31592  17.8101  89  91  100  
3.20913  3.53229  18.975  79  81  88  
-3.87833  2.78671  15.2669  42  46  57  
-3.7552  2.72081  14.8948  202  231  242  
-3.16892  2.61376  14.2787  168  194  214  
-2.98483  2.62732  14.312  116  122  133  
-2.73105  2.57158  14.0321  134  140  156  
-2.57258  2.60568  14.2145  106  109  120  
-2.13034  2.54636  13.8392  177  186  204  
-2.13937  2.62129  14.2761  91  98  111  
-1.91208  2.58071  14.0109  158  166  179  
-0.943523  2.78471  15.0838  77  93  119  
-0.202412  2.86832  15.4948  85  100  123  
3.61763  3.61736  19.3104  132  153  170  
3.82373  3.58033  19.1058  75  80  85  
-6.17676  4.06487  22.2442  135  154  158  
-3.4699  2.71929  14.7885  88  120  140  
-2.8755  2.63957  14.3504  134  141  156  
-2.66775  2.49388  13.4723  115  118  135  
-2.48471  2.57305  13.951  111  117  138  
-2.10304  2.64234  14.3076  177  184  198  
-2.03685  2.61055  14.1588  182  191  209  
-1.69023  2.65366  14.3511  106  121  142  
-0.789022  2.77749  14.9707  73  86  113  
-0.612082  2.88754  15.5284  76  89  112  
-0.366518  2.86026  15.3667  49  60  82  
2.44788  3.36997  17.892  49  52  59  
3.30004  3.55666  18.8866  113  115  117  
3.73473  3.68453  19.5568  46  37  42  
-6.27  4.04012  22.0762  94  95  95  
-3.82605  2.75704  14.949  193  231  247  
-3.61139  2.7279  14.7884  139  178  208  
-3.25942  2.64475  14.3161  27  40  66  
-3.20791  2.64961  14.3309  85  104  128  
-3.07118  2.63407  14.1876  117  134  150  
-3.1793  2.74397  14.8542  131  151  162  
-2.6997  2.63261  14.2391  135  141  161  
-2.25887  2.47924  13.307  143  148  168  
-2.34599  2.64243  14.2861  107  118  134  
-2.30121  2.62639  14.1575  166  178  192  
-1.84102  2.6425  14.2153  80  85  100  
-1.7438  2.56175  13.7995  101  114  132  
-1.65228  2.67416  14.3789  108  126  147  
-1.0565  2.6606  14.2859  69  83  110  
-0.57377  2.87955  15.4349  79  90  114  
-0.0763944  2.92578  15.5791  63  72  95  
0.335127  3.01304  16.0819  92  89  97  
0.402969  3.16468  17.0197  49  45  53  
0.584645  3.09537  16.5176  56  51  60  
2.44621  3.45824  18.3756  80  81  90  
3.48449  3.62373  19.1663  140  156  170  
3.47774  3.53196  18.6099  138  150  161  
3.80157  3.71369  19.6489  137  170  184  
3.81641  3.68136  19.4163  55  51  56  
-6.03217  3.86011  20.9373  167  171  167  
-3.73743  2.81355  15.1852  69  78  93  
-3.57949  2.75182  14.8323  26  52  74  
-3.53923  2.75529  14.8421  24  45  63  
-3.01705  2.64391  14.2243  185  202  217  
-2.65597  2.63419  14.1328  158  167  185  
-2.55813  2.6039  13.9875  170  173  182  
-2.40316  2.61623  14.0201  167  176  195  
-1.89538  2.63593  14.0858  149  160  174  
-0.36767  2.89871  15.4145  79  95  117  
0.173867  3.15876  16.8205  59  65  81  
0.64648  3.14915  16.7514  83  82  91  
0.693352  3.14721  16.7308  57  58  65  
3.96456  3.77178  19.831  116  125  129  
5.97417  4.32346  22.6522  155  154  146  
-5.98445  4.01669  21.627  51  56  59  
-3.88376  2.79458  15.0062  173  196  213  
-3.83009  2.7996  15.0211  192  223  240  
-3.44274  2.73691  14.6885  179  196  207  
-3.23419  2.68692  14.387  157  190  205  
-2.48565  2.62868  14.0319  162  172  191  
-2.17014  2.58012  13.7792  112  125  152  
-2.18722  2.75289  14.6885  151  158  172  
-1.80696  2.68121  14.2682  184  188  195  
-1.65192  2.65689  14.1422  128  144  167  
-1.28961  2.82838  15.0433  43  47  72  
-1.08799  2.8023  14.8992  22  29  56  
-0.622422  2.86202  15.193  51  63  83  
5.97859  4.31486  22.4794  75  66  63  
-6.15762  4.06544  21.8036  81  92  97  
-6.05575  4.05606  21.7354  57  55  55  
-3.4705  2.73054  14.5544  152  172  192  
-3.42393  2.75958  14.7288  50  58  74  
-3.17536  2.71189  14.4325  53  69  88  
-2.77617  2.67361  14.1542  110  113  130  
-2.51619  2.64493  14.0526  112  115  133  
-2.17536  2.63398  13.959  93  103  128  
-1.98209  2.66783  14.129  153  158  171  
-1.86412  2.69655  14.2886  168  187  199  
-1.72867  2.70343  14.2966  87  96  113  
-0.458348  2.96585  15.6706  70  83  106  
5.97377  4.4324  23.0095  107  105  95  
-5.64936  3.68733  19.6753  128  138  143  
-6.02417  4.08519  21.7702  138  150  152  
-3.73747  2.84983  15.1114  157  176  195  
-3.07401  2.69724  14.2994  170  198  218  
-2.76667  2.62043  13.8748  117  119  138  
-2.32372  2.72071  14.4031  93  98  110  
-2.14457  2.67552  14.1318  176  188  205  
-2.11824  2.67747  14.1365  191  200  216  
-2.06536  2.68113  14.1447  112  122  137  
-1.89437  2.71337  14.3109  85  93  112  
-1.81322  2.71791  14.3179  77  94  111  
-1.56716  2.75225  14.4805  143  152  166  
0.128654  3.00957  15.7382  76  87  105  
1.61286  3.4711  18.1463  87  92  101  
3.70819  3.73414  19.3168  108  129  148  
3.93796  3.85573  19.9806  122  135  152  
5.97589  4.26307  21.9556  140  147  150  
-3.81537  2.86572  15.1339  173  203  211  
-3.56391  2.76271  14.5946  41  54  71  
-3.57335  2.80776  14.7913  73  95  118  
-3.11878  2.71251  14.3163  53  53  65  
-2.94968  2.75104  14.513  156  158  172  
-2.66712  2.66895  14.0681  138  145  165  
-2.56818  2.65637  13.9506  152  158  170  
-2.55156  2.67966  14.0996  169  174  183  
-1.54212  2.77184  14.5048  174  186  200  
-0.0119323  3.05649  15.8967  43  54  74  
0.650759  3.19494  16.6097  56  52  62  
1.07867  3.3115  17.2234  63  64  77  
1.4274  3.39341  17.631  95  98  108  
3.57554  3.69034  18.9594  46  48  55  
-6.35648  4.10624  21.6795  208  196  174  
-6.18099  4.03014  21.3125  67  52  53  
-3.8919  2.85124  14.968  113  138  157  
-3.85057  2.85409  14.9742  34  50  75  
-2.85143  2.71362  14.2314  145  159  176  
-2.72725  2.78806  14.5859  116  119  136  
-2.382  2.67335  13.9966  176  185  206  
-2.04604  2.71952  14.1984  166  174  191  
-1.88747  2.75118  14.3627  152  164  183  
-1.7786  2.75683  14.3696  161  169  187  
-1.64174  2.78656  14.5292  175  190  214  
-1.5406  2.83566  14.8322  141  141  154  
-1.15856  2.85189  14.8382  67  72  91  
-0.680714  2.96828  15.4178  74  85  103  
0.0541322  3.05082  15.811  43  50  69  
1.55455  3.40235  17.5615  57  62  70  
2.51383  3.58761  18.4387  46  48  56  
3.98601  3.88924  19.9425  130  149  166  
4.2538  3.9596  20.2676  41  36  39  
6.31226  4.64955  23.8145  86  73  67  
6.31016  4.49046  22.9475  73  61  59  
6.66393  4.66859  23.9081  115  105  103  
-3.6697  2.7928  14.6261  147  166  183  
-3.66804  2.87126  15.0209  131  167  190  
-3.48726  2.8115  14.6839  53  65  84  
-3.46057  2.81374  14.6898  24  22  40  
-3.33348  2.77837  14.5198  16  21  41  
-3.09074  2.62038  13.7053  174  199  221  
-3.11865  2.75241  14.3791  33  52  66  
-3.0798  2.75623  14.3906  68  76  95  
-3.06335  2.7991  14.6725  162  167  179  
-2.35678  2.61619  13.6  156  168  185  
-2.07639  2.73627  14.2205  87  97  111  
-2.0259  2.76103  14.3704  105  104  122  
-1.7137  2.80198  14.5512  105  116  136  
-1.47397  2.77965  14.4218  117  122  131  
-0.259953  2.98765  15.4288  76  88  108  
0.826286  3.24066  16.7259  57  61  72  
2.37605  3.63038  18.6452  80  73  79  
5.63145  4.43205  22.5386  94  101  100  
-5.8844  3.94587  20.6297  73  79  81  
-3.29055  2.8457  14.7456  128  148  167  
-2.66516  2.76746  14.328  94  102  121  
-2.37548  2.77244  14.3617  116  121  130  
-2.14674  2.75025  14.2362  174  180  197  
-2.0173  2.84134  14.7078  139  144  159  
-1.88048  2.78922  14.4145  107  119  140  
-1.8532  2.79068  14.4164  172  186  209  
-1.75811  2.8186  14.5736  181  192  208  
-1.62196  2.9315  15.1945  119  137  155  
0.888546  3.34681  17.1447  92  94  104  
0.920765  3.25761  16.7107  98  100  116  
3.21021  3.71551  18.8752  49  48  55  
-6.24474  4.13382  21.5321  114  123  126  
-3.71162  2.91049  15.0811  166  207  230  
-3.46203  2.85519  14.7561  191  208  225  
-2.90649  2.71975  14.0029  98  105  118  
-2.46574  2.70169  13.9208  162  169  190  
-2.38825  2.8989  15.0025  125  127  136  
-1.15839  2.93424  15.0756  44  44  61  
-0.0859161  3.23764  16.5698  77  93  117  
0.0330529  2.96798  15.1144  73  82  102  
1.56656  3.54581  18.0012  74  76  84  
3.97263  3.96984  20.0657  88  93  99  
5.96569  4.47604  22.528  134  133  124  
-6.14588  4.16116  21.5449  145  167  173  
-6.0229  4.15116  21.4718  51  62  62  
-3.66548  2.93651  15.1292  52  73  95  
-2.96627  2.85032  14.6642  82  87  103  
-2.22099  2.78252  14.2758  122  134  153  
-1.58179  2.71744  13.917  175  196  215  
-1.59722  2.86405  14.6298  181  197  211  
-0.914218  2.95913  15.0794  39  37  52  
5.96223  4.41154  22.069  131  133  133  
-3.54451  2.89037  14.8059  167  187  205  
-3.36091  2.80476  14.4125  73  93  120  
-3.34293  2.83342  14.4852  59  82  111  
-3.34864  2.85929  14.6472  152  175  203  
-3.27303  2.81626  14.4522  73  88  115  
-3.13124  2.83182  14.5015  85  91  105  
-2.67555  2.76151  14.0951  90  89  108  
-2.23324  2.77861  14.1575  90  98  118  
-2.11324  2.7856  14.1688  99  111  129  
-2.10471  2.80986  14.3211  184  189  205  
-2.07779  2.81154  14.3242  188  185  186  
-1.94225  2.81872  14.3333  60  72  93  
-1.87906  2.78754  14.1971  151  170  189  
-1.44243  2.85591  14.5206  224  232  236  
-0.857645  2.97884  15.0945  58  54  68  
-6.41895  4.17378  21.4071  131  116  98  
-6.79287  4.49287  23.1375  136  151  162  
-6.22312  4.15835  21.2945  114  126  137  
-3.84837  2.93512  14.9812  183  213  230  
-3.70255  2.91902  14.9413  26  41  59  
-3.11137  2.85404  14.5386  235  250  251  
-3.07168  2.85759  14.5483  238  241  248  
-3.05843  2.8825  14.702  168  176  191  
-2.61808  2.7792  14.2011  102  105  125  
-2.343  2.78964  14.1664  156  169  181  
-1.80233  2.83265  14.3721  113  123  144  
-1.73461  2.83699  14.3804  110  117  135  
-1.52786  2.87069  14.5417  207  218  228  
-1.34236  2.72285  13.6997  219  222  233  
-0.950698  3.05684  15.4334  76  74  85  
0.0545361  3.17064  15.9558  74  88  111  
0.691361  3.27616  16.443  52  49  59  
0.963673  3.31562  16.5906  58  59  71  
4.65479  4.17717  20.7588  63  58  58  
5.62978  4.51211  22.3853  140  154  155  
5.95926  4.59733  22.823  131  138  136  
-6.36808  4.20361  21.4416  41  37  36  
-5.7933  4.09798  20.8666  56  49  48  
-3.56611  2.85354  14.4907  156  180  198  
-2.809  2.87817  14.5954  132  143  162  
-2.49693  2.7743  14.0215  92  97  117  
-2.40594  2.7813  14.0383  172  184  200  
-2.19303  2.84202  14.3614  180  190  209  
-1.74693  3.09301  15.6621  134  151  170  
-1.63267  2.94457  14.8617  197  210  227  
-0.704164  3.04712  15.2963  49  45  59  
-0.637363  2.9597  14.8772  56  61  79  
-0.514952  3.07649  15.4423  52  61  79  
-6.265  4.22756  21.4375  66  70  74  
-6.00127  4.14561  21.0389  35  28  41  
-3.67912  2.91404  14.7065  88  107  127  
-3.73572  3.10224  15.6662  141  161  178  
-3.06664  2.82807  14.2663  84  91  110  
-2.22561  2.77582  13.9414  183  190  198  
-2.20525  2.83706  14.239  89  101  124  
-2.12555  2.80495  14.0971  106  116  134  
-2.06345  2.84924  14.3687  166  170  181  
-1.92915  2.84051  14.2666  65  78  101  
-1.90322  2.86331  14.407  116  128  151  
-1.8384  2.80841  14.1219  179  193  213  
-1.71926  2.81727  14.1425  173  184  202  
-0.573019  3.0661  15.2918  79  83  98  
-0.0716569  3.18004  15.8365  66  83  106  
0.514534  3.26506  16.2611  42  47  63  
1.11089  3.39097  16.8201  93  92  105  
1.32766  3.48354  17.2878  92  95  106  
1.43441  3.52314  17.5092  91  93  104  
2.10112  3.56329  17.5816  82  77  82  
2.38348  3.58025  17.6532  80  86  94  
5.63131  4.51217  22.1595  109  111  111  
6.27  4.59463  22.5711  136  136  136  
-6.19929  4.11973  20.8077  139  148  146  
-6.58459  4.43275  22.3835  85  88  92  
-3.87488  2.99866  15.0846  40  53  76  
-3.69624  2.96138  14.9032  71  97  124  
-3.29883  2.87283  14.43  174  191  220  
-3.31343  2.97189  14.9471  57  60  73  
-2.91581  2.88587  14.4841  139  145  162  
-2.82017  2.91769  14.6536  133  140  158  
-2.65323  2.86394  14.3585  157  159  173  
-2.54507  2.80826  14.0652  85  88  107  
-2.333  2.78579  13.9455  97  106  120  
-2.32944  2.84795  14.2495  168  176  189  
-2.09364  2.86552  14.3868  149  156  171  
-1.78454  2.89076  14.451  140  152  171  
-1.68884  2.89629  14.4596  146  161  180  
-1.49393  2.92936  14.6178  166  178  190  
-0.754663  3.11405  15.5286  69  68  78  
0.175943  3.22666  15.9815  68  81  108  
0.912192  3.42971  16.9733  97  96  102  
1.00251  3.35842  16.5947  59  57  67  
1.29849  3.50847  17.3354  97  101  110  
2.40658  3.7208  18.4064  69  69  74  
3.16845  3.8132  18.7285  48  51  61  
4.03697  4.0979  20.1119  125  134  142  
-6.33464  4.15953  20.9271  112  129  129  
-3.93768  3.01466  15.1038  139  154  171  
-3.63776  2.98905  14.9564  183  204  217  
-3.261  3.07654  15.3743  203  222  234  
-2.50485  2.85243  14.2385  154  156  175  
-2.04522  2.93287  14.6074  78  90  109  
-1.87943  2.94222  14.6211  143  156  176  
-1.39511  3.03834  15.1002  219  230  239  
0.419506  3.62983  17.9954  47  51  73  
4.19291  4.19861  20.5456  109  131  147  
5.62059  4.62525  22.5225  97  92  93  
5.94773  4.60476  22.4065  132  136  132  
-3.49802  2.97053  14.8045  165  186  202  
-3.24947  2.94341  14.6591  183  209  227  
-3.14953  2.87964  14.3325  209  235  248  
-2.96477  2.85035  14.1874  197  220  239  
-2.74248  2.8953  14.3939  134  140  155  
-2.43085  2.87855  14.2846  95  104  125  
-2.2028  2.85549  14.1603  86  91  113  
-2.17651  2.85763  14.1656  149  155  175  
-1.91231  2.89842  14.3452  111  121  148  
-1.77707  2.92946  14.5029  224  230  247  
-1.62567  2.93733  14.5121  169  179  193  
0.557309  3.38852  16.6344  49  51  71  
0.914761  3.47244  17.0227  97  96  101  
-5.96426  4.34829  21.6547  102  112  121  
-3.82634  3.01211  14.9649  129  163  186  
-3.05248  2.90987  14.393  74  92  120  
-2.99942  2.93869  14.5533  72  83  103  
-2.93335  2.9451  14.5715  59  59  75  
-2.50716  2.86899  14.1554  87  99  116  
-2.48808  2.893  14.2991  200  203  217  
-2.38233  2.90189  14.3218  150  160  174  
-1.82128  2.94593  14.5237  174  186  203  
-1.26854  2.88099  14.1328  222  225  230  
-0.0851649  3.36227  16.4745  56  65  89  
0.00930002  3.23206  15.8119  39  52  71  
1.91264  3.67993  17.903  51  49  57  
2.25551  3.76442  18.302  52  44  51  
2.61068  3.84816  18.6968  51  51  61  
4.68994  4.31455  20.8366  65  59  61  
-6.446  4.26561  21.1614  79  95  99  
-6.33026  4.25966  21.1119  58  51  57  
-6.20676  4.46944  22.1257  26  23  26  
-3.4682  2.93668  14.5021  116  129  143  
-2.78279  2.90841  14.3003  127  135  152  
-2.65346  2.98484  14.6416  116  118  133  
-2.3198  2.92582  14.3588  98  100  114  
-2.07737  2.86231  14.0691  181  196  209  
-1.94615  2.93449  14.3927  147  157  180  
-1.83731  2.94074  14.4021  201  211  228  
-1.53215  3.00448  14.7169  162  174  185  
-1.51523  3.02869  14.8643  222  232  243  
-1.18097  2.75028  13.3566  230  230  235  
2.45311  3.75111  18.1082  49  49  59  
-6.75204  4.36589  21.6395  144  145  138  
-6.54955  4.27673  21.2764  145  155  156  
-6.11956  4.32443  21.4206  58  64  73  
-3.79127  3.06108  15.0539  81  106  132  
-3.17664  3.01357  14.7779  87  88  103  
-2.7849  2.95129  14.4711  136  145  161  
-2.41899  2.87275  14.0576  170  185  201  
-2.32824  2.88073  14.0785  149  151  168  
-2.23704  2.80413  13.6648  126  130  144  
-2.17501  2.91503  14.2449  79  80  98  
-2.03078  2.94796  14.4071  89  97  116  
-2.00378  2.94989  14.4112  90  102  119  
-1.70255  3.01464  14.7302  221  231  243  
-1.40803  3.0286  14.7413  214  227  242  
0.532048  3.60371  17.5412  74  83  107  
0.590838  3.4499  16.693  74  84  103  
0.760522  3.43752  16.5993  63  65  74  
2.13778  3.83077  18.4791  54  46  51  
2.35211  3.79325  18.2505  121  124  130  
3.24006  3.99396  19.166  51  47  52  
3.4042  3.94375  18.8828  41  39  44  
-6.24884  4.54261  22.2753  106  128  138  
-3.87068  3.04703  14.9022  180  200  216  
-3.83952  3.07775  15.0732  25  51  76  
-3.89127  3.18941  15.6426  163  187  208  
-3.41891  2.98486  14.5887  65  86  114  
-3.35375  2.99184  14.6094  134  165  190  
-2.86039  2.91658  14.1925  80  85  107  
-2.88372  2.98357  14.5138  93  97  116  
-2.79364  2.94724  14.3561  130  143  162  
-1.90025  2.91423  14.1547  189  202  221  
-1.46692  3.04594  14.7677  143  157  172  
-1.26727  3.01816  14.6284  220  229  240  
-0.813356  2.99517  14.3997  68  61  66  
-0.431685  3.23467  15.6166  45  39  51  
0.684681  3.46447  16.6675  52  56  73  
2.38258  3.8881  18.7988  54  44  48  
6.28042  4.75955  22.6239  71  56  50  
-6.80349  4.46779  21.8341  87  87  88  
-6.75222  4.46303  21.8026  75  75  75  
-6.18783  4.42586  21.6197  143  157  166  
-3.67304  3.11768  15.1614  92  115  134  
-3.58939  3.06876  14.9488  169  195  210  
-3.47883  3.02123  14.7367  164  180  199  
-3.24628  2.9712  14.4576  199  221  233  
-3.18197  2.97862  14.4805  94  115  139  
-3.1168  2.98537  14.5001  201  224  245  
-3.01084  2.9948  14.5247  181  196  215  
-2.87198  3.10559  15.0531  87  95  110  
-2.65718  2.93391  14.2333  147  148  159  
-2.47676  2.92252  14.1152  112  118  131  
-2.27573  2.94537  14.2779  109  110  124  
-2.07561  2.96029  14.3111  150  156  174  
-1.77808  2.84399  13.7622  177  190  208  
-1.60393  3.21836  15.5851  199  208  218  
-1.37023  3.06834  14.7886  166  181  199  
-1.29026  2.95349  14.2239  192  203  219  
-1.19933  3.03973  14.6515  67  52  57  
0.333957  3.3373  16.0004  42  52  74  
0.552671  3.38733  16.202  49  53  73  
0.822973  3.54018  16.9318  101  103  116  
0.889763  3.58312  17.1667  102  99  107  
1.07678  3.56485  17.0416  61  58  69  
2.14164  3.80636  18.1406  78  76  85  
2.23642  3.86081  18.4319  49  47  54  
2.32784  3.84403  18.3315  55  47  54  
6.28072  4.94096  23.4264  141  143  135  
-6.60625  4.41121  21.4852  37  40  43  
-6.5598  4.4092  21.4674  163  187  188  
-6.30419  4.70484  22.8866  112  126  131  
-3.67576  3.07993  14.9498  46  60  80  
-3.43353  3.02569  14.6512  72  90  120  
-3.38116  3.03131  14.6677  72  107  139  
-2.57776  2.9833  14.4178  135  138  149  
-2.40639  2.93165  14.142  170  177  192  
-2.20016  2.97099  14.32  145  149  162  
-1.98441  2.98454  14.3437  136  150  172  
-1.48789  3.14784  15.1217  196  201  213  
0.45934  3.45445  16.5056  35  47  71  
0.766063  3.587  17.1669  87  94  109  
1.18041  3.62684  17.2818  65  66  76  
5.9376  4.88668  23.0534  58  39  35  
-6.86164  4.70363  22.8312  51  42  45  
-6.01019  4.5576  22.0492  87  87  89  
-4.05187  3.20391  15.3979  87  97  104  
-4.19265  3.32238  16.1071  102  106  123  
-3.40403  2.96118  14.1893  151  168  183  
-3.21954  2.99119  14.3855  69  79  93  
-3.1559  3.0229  14.5524  136  176  210  
-2.48969  3.01135  14.468  86  81  94  
-1.63432  2.95007  14.112  210  219  231  
-1.37744  3.07774  14.6679  193  202  214  
-1.24007  3.02105  14.3741  160  176  196  
-1.20326  3.07786  14.6995  227  223  236  
-1.21342  3.2994  15.7886  74  62  70  
1.41769  3.76443  17.8235  58  58  68  
3.60688  4.17345  19.657  77  73  77  
6.27632  4.92988  23.1441  114  115  116  
-2.81485  2.97692  14.2718  117  122  141  
-2.8022  3.02688  14.4716  63  72  89  
-2.71546  2.96431  14.1643  104  115  130  
-2.62347  3.06631  14.6534  107  109  122  
-2.46085  2.94277  14.047  157  165  180  
-2.43655  3.07909  14.7734  130  139  153  
-2.18129  3.0113  14.3764  194  201  217  
-1.8738  3.01422  14.3948  220  229  244  
-1.89484  3.21454  15.3418  176  189  205  
-1.61882  3.11786  14.8673  233  239  248  
-1.51373  3.08261  14.7132  227  233  244  
1.06568  3.63106  17.1248  85  87  97  
2.40381  3.97315  18.7279  182  185  192  
-7.10757  4.63499  22.2649  138  136  134  
-7.00576  4.62722  22.2112  91  94  99  
-6.21764  4.61476  22.0597  114  129  136  
-3.4688  3.08613  14.7415  29  34  50  
-3.44441  3.11336  14.8943  172  227  248  
-3.18211  3.06204  14.6088  14  14  36  
-3.04878  3.07415  14.6404  47  61  87  
-3.00823  3.10415  14.803  75  78  98  
-2.92384  3.05931  14.6108  132  141  163  
-2.30577  3.02099  14.3802  161  168  181  
-2.11402  2.97113  14.1121  139  149  164  
-2.11763  3.03507  14.4111  172  183  201  
-1.71275  3.06698  14.5786  176  189  203  
0.689868  3.61565  17.0423  49  56  70  
3.27108  4.14473  19.3946  54  54  61  
6.24299  4.93666  22.9591  74  65  64  
-6.98799  4.716  22.4662  114  120  118  
-6.50649  4.54534  21.6986  127  132  131  
-6.61882  4.76476  22.8604  67  75  78  
-4.03692  3.28739  15.6711  187  218  230  
-3.89288  3.20841  15.283  58  55  60  
-3.58183  3.04113  14.4297  32  39  59  
-3.69572  3.16723  15.0902  167  204  225  
-3.48988  3.04898  14.4489  147  166  187  
-2.65636  3.03337  14.3768  133  138  147  
-2.41105  3.00911  14.2499  77  84  103  
-1.29401  3.1327  14.7745  173  173  184  
-1.19428  3.29345  15.5427  205  222  233  
0.880199  3.69422  17.3031  100  101  111  
2.0878  3.8554  17.9647  43  37  44  
2.21991  3.98183  18.5884  82  77  81  
2.33845  3.8709  18.0715  73  80  91  
2.53335  3.83942  17.8827  66  60  67  
3.47636  4.2006  19.5359  134  144  157  
5.92901  4.9717  23.033  109  111  110  
-6.72489  4.59576  21.8706  137  154  158  
-6.2484  4.33357  20.5568  95  102  113  
-6.08167  4.61803  21.9025  118  132  140  
-6.14301  4.71051  22.3795  33  31  34  
-3.28717  3.09278  14.6401  153  195  219  
-2.71425  3.04812  14.3917  86  90  104  
-2.60256  3.08175  14.5568  133  140  153  
-2.45504  3.0249  14.2676  151  158  178  
-2.43753  3.08306  14.6258  154  168  186  
-2.34922  3.03366  14.2886  162  175  187  
-2.26594  2.99667  14.1327  116  124  139  
-2.16114  3.00577  14.1555  113  119  136  
-2.04433  3.03733  14.3103  115  127  153  
-1.8178  3.03243  14.3068  190  199  216  
-1.24648  3.28286  15.3998  175  186  200  
0.321556  3.46071  16.1484  45  50  68  
0.633061  3.54972  16.5473  78  83  97  
0.818274  3.64992  17.0247  103  103  117  
1.06194  3.74962  17.4911  50  49  63  
4.03825  4.33372  20.0264  43  35  38  
-6.77196  4.61368  21.7739  56  62  69  
-6.09272  4.43017  20.9172  119  132  140  
-4.09759  3.32831  15.7308  106  128  143  
-3.67249  3.21558  15.1739  167  194  211  
-3.54009  3.25723  15.3717  46  56  71  
-3.09019  3.05705  14.3772  233  246  253  
-3.18265  3.23335  15.23  187  204  224  
-3.04018  3.13738  14.7346  140  156  181  
-2.67985  3.07152  14.4293  138  143  152  
-2.27827  3.08268  14.4682  189  198  206  
-1.80511  3.09668  14.5075  214  222  239  
-1.43068  2.99485  13.9683  228  234  243  
-1.32666  3.17051  14.824  248  253  255  
-1.12953  3.3201  15.5822  135  139  150  
-1.04876  3.14641  14.6301  214  224  230  
0.352424  3.47982  16.1593  41  43  62  
1.38458  3.86737  17.9481  61  64  73  
1.63387  3.9907  18.4876  64  66  81  
2.6465  4.10407  18.962  87  89  95  
2.95683  4.03325  18.6061  56  50  58  
-6.28057  4.71073  22.1634  56  54  62  
-3.69298  3.14443  14.7892  154  175  203  
-3.32708  3.13086  14.6923  165  192  213  
-3.05276  2.98242  13.9399  78  81  103  
-2.47739  3.06246  14.318  91  101  119  
-2.41629  3.0903  14.4645  101  109  126  
-2.22834  3.10637  14.5039  187  195  204  
-2.065  3.07462  14.3589  129  142  169  
-1.94379  3.0834  14.3772  202  214  229  
-1.71819  3.05777  14.2484  158  168  182  
-0.98462  3.29076  15.2837  202  187  193  
1.51382  3.87364  17.8717  84  89  102  
2.2379  3.97082  18.2369  73  58  58  
-6.26064  4.66303  21.8958  75  78  91  
-3.81704  3.21679  15.0424  82  101  120  
-3.29438  3.05126  14.2334  171  195  219  
-3.18043  3.08868  14.4115  171  181  197  
-3.13452  3.17216  14.7806  183  201  222  
-2.95345  3.16105  14.7592  53  60  74  
-2.14187  3.04032  14.094  117  129  151  
-2.12223  3.08943  14.3739  175  185  203  
-1.56038  3.17398  14.7202  185  193  205  
-1.2688  3.23785  15.0238  215  225  234  
0.322952  3.63217  16.7658  76  79  98  
0.410611  3.41325  15.6594  81  90  103  
0.694269  3.678  16.9117  51  57  69  
2.2485  4.14685  19.0644  41  35  42  
2.42927  4.03354  18.454  103  112  119  
-6.97715  4.67755  21.8567  84  94  95  
-6.92824  4.67435  21.834  155  175  175  
-6.59311  4.49229  20.968  34  21  23  
-6.62651  4.56773  21.3522  159  181  190  
-6.35456  4.6301  21.626  143  163  175  
-6.21637  4.77219  22.2346  115  128  137  
-5.39287  4.22482  19.5725  55  61  67  
-3.90404  3.22809  15.0437  31  47  73  
-3.75102  3.27464  15.2564  122  154  176  
-3.55401  3.20788  14.9215  21  37  56  
-2.98678  3.07758  14.2941  89  94  118  
-3.00258  3.15322  14.638  88  102  126  
-2.4785  3.12432  14.5039  104  112  129  
-2.26928  3.07425  14.2389  158  167  186  
-2.0428  3.09117  14.2748  176  194  213  
-1.1581  3.35645  15.5144  128  140  160  
-1.04046  3.26531  15.0419  213  222  239  
-0.920067  3.36242  15.4985  227  228  233  
0.125269  3.62297  16.6483  82  77  85  
0.231316  3.54826  16.282  40  42  56  
0.742042  3.69518  16.9069  90  89  104  
1.28924  3.814  17.4342  57  58  69  
3.40883  4.2544  19.3547  91  94  95  
4.05424  4.42958  20.1099  209  215  221  
-6.79155  4.41422  20.6109  189  179  162  
-6.58153  4.60209  21.4048  156  172  186  
-6.42353  4.6694  21.7195  39  35  44  
-3.5967  3.19775  14.7893  30  55  83  
-3.43815  3.15761  14.612  156  174  188  
-3.21928  3.1261  14.4619  155  175  192  
-3.15459  3.13345  14.4833  138  158  178  
-2.5968  3.11083  14.3713  113  117  126  
-2.15666  3.12589  14.4201  162  178  200  
-1.88661  3.1699  14.6012  190  203  217  
-1.22298  2.91218  13.3118  218  225  236  
-1.07108  3.28448  15.0688  154  164  187  
-0.846985  3.38348  15.5133  224  233  243  
-0.742467  3.31844  15.1965  212  211  208  
0.839844  3.7579  17.1403  122  120  133  
1.0179  3.79108  17.2987  56  60  73  
1.14926  3.85328  17.5641  98  100  112  
1.15939  3.77745  17.2094  90  93  104  
2.33771  4.09282  18.621  176  181  185  
4.32013  4.59707  20.8054  73  69  70  
-7.17364  4.76198  22.0759  106  112  116  
-6.65079  4.64087  21.4964  25  25  36  
-6.77092  4.81767  22.2961  61  60  67  
-6.43916  4.62883  21.4065  25  36  48  
-6.25483  4.77231  22.0966  57  73  85  
-3.64431  3.21475  14.81  51  65  86  
-3.58292  3.24917  14.9826  153  175  197  
-3.21017  3.00647  13.8933  119  139  158  
-3.15967  3.17784  14.6501  104  118  143  
-2.79924  3.16242  14.547  106  110  124  
-2.66029  3.10196  14.2514  139  148  155  
-2.39566  3.10129  14.2599  177  184  198  
-2.05783  3.03925  13.8918  135  147  170  
-1.17211  3.2599  14.9405  209  223  237  
-1.01281  3.40205  15.5597  152  167  184  
-0.961495  3.37152  15.379  216  226  240  
0.293538  3.58723  16.3055  46  44  60  
1.10302  3.88121  17.6232  55  55  68  
2.4182  4.10207  18.5652  70  77  83  
2.61567  4.14623  18.7356  54  57  62  
-6.72713  4.92706  22.583  119  138  150  
-4.0895  3.44313  15.803  155  189  204  
-3.82526  3.3077  15.1898  90  110  128  
-3.81689  3.33596  15.3446  140  174  198  
-3.18062  3.17279  14.539  57  73  96  
-3.04316  3.13275  14.3662  56  64  90  
-2.77814  3.18526  14.5827  111  114  127  
-2.51408  3.15943  14.4503  156  163  180  
-2.09709  3.17066  14.4859  110  121  148  
-1.87696  3.28005  14.9686  162  176  193  
-1.64678  3.20375  14.6448  173  185  193  
-1.42731  3.07055  13.9746  172  180  196  
0.0458369  3.61911  16.4241  83  76  77  
0.941052  3.84269  17.3964  96  98  111  
2.35937  4.13698  18.6547  188  198  207  
3.4651  4.40656  19.7926  88  84  90  
3.88409  4.47845  20.0954  172  178  190  
-7.32629  4.76488  21.8842  133  141  137  
-6.7328  4.6402  21.2827  62  63  67  
-6.3947  4.77592  21.9044  56  64  77  
-6.24639  4.76334  21.8237  63  68  80  
-3.49928  3.21552  14.6923  166  200  216  
-3.47331  3.21868  14.7017  35  49  67  
-3.50701  3.32979  15.2287  122  152  171  
-3.26516  3.18429  14.5428  166  190  204  
-3.23931  3.18741  14.5521  67  81  95  
-3.10342  3.25028  14.8667  59  61  87  
-2.87038  3.21806  14.7125  61  55  69  
-2.72464  3.22504  14.6282  115  123  133  
-2.1953  3.18224  14.4928  189  202  217  
-1.77662  3.16944  14.3908  214  223  239  
-1.58794  3.27186  14.8466  155  171  189  
-1.16601  3.18669  14.4188  192  203  216  
-1.0912  3.44183  15.6179  153  161  174  
-0.90749  3.37673  15.2909  216  230  244  
0.67114  3.71747  16.7229  49  49  62  
0.859197  3.82262  17.2057  117  116  127  
2.37213  4.08194  18.2753  157  167  173  
2.40193  4.07556  18.2404  138  145  153  
2.66691  4.1824  18.7258  81  89  98  
3.52485  4.41096  19.7131  105  102  109  
-7.37816  4.76884  21.9518  173  168  152  
-7.25567  4.79786  21.9231  117  126  125  
-7.27939  4.88176  22.3353  158  173  173  
-7.20624  4.87814  22.3071  25  21  20  
-6.65118  4.74975  21.6983  104  123  134  
-6.93353  5.02652  22.9967  52  67  80  
-6.08851  4.78031  21.7784  39  33  38  
-3.88818  3.31676  15.0819  35  44  71  
-3.82925  3.35367  15.2639  42  66  94  
-3.1267  3.24638  14.7602  94  103  127  
-3.01668  3.28287  14.9322  150  169  181  
-2.95185  3.26367  14.8058  171  168  176  
-2.78908  3.22588  14.6402  108  114  127  
-2.38273  3.16254  14.347  158  167  180  
-2.31663  3.16891  14.3636  114  121  139  
-2.24256  3.10625  14.0723  163  175  193  
-1.95527  3.17537  14.3872  196  204  217  
-1.91055  3.29123  14.8655  190  198  212  
-1.61556  3.19772  14.4267  151  160  180  
-1.5007  3.16508  14.29  120  125  150  
-1.41596  3.25871  14.7236  210  221  237  
-1.15097  3.36271  15.1736  221  229  241  
-1.09273  3.36409  15.1695  164  174  187  
-0.97724  3.32854  15.0203  130  136  152  
-0.632422  3.43009  15.4476  92  84  85  
0.310169  3.64966  16.3716  77  82  97  
0.78096  3.85241  17.2797  46  46  59  
0.941803  3.81163  17.1008  56  57  73  
-7.10716  4.90899  22.33  90  102  101  
-6.60208  4.78256  21.7409  27  28  36  
-6.06412  4.89991  22.2462  140  161  168  
-3.68188  3.26928  14.7762  30  35  52  
-3.78924  3.41065  15.4726  71  101  127  
-3.59179  3.27003  14.8531  12  31  55  
